X,Y,Z
2888190.8000,711958.9800,0.4500
2887456.8900,712156.1300,0.4500
2887436.8300,712161.4900,0.8400
2887376.3100,712177.7400,0.8700
2887159.9600,712235.8200,0.8400
2889188.8600,711701.2800,0.9100
2889274.0500,711678.6000,0.8600
2889767.1200,711547.3100,0.9800
2889981.5300,711490.2300,0.8200
2888846.7200,711803.5300,0.8400
2888634.7500,711860.3700,0.7700
2888423.8700,711916.9400,0.4100
2887762.7600,712094.2200,0.6200
2887742.7400,712099.5900,0.5600
2887520.8600,712159.0700,0.8900
2887381.0200,712196.5600,0.9300
2887222.3600,712239.1000,1.0900
2887144.6700,712259.9400,0.8400
2886888.9500,712335.3000,-0.1600
2887224.4100,712245.8100,1.0600
2887937.4300,712055.8200,0.7600
2887979.0400,712044.7200,0.9000
2888124.8000,712005.9300,0.7300
2888778.5400,711831.9400,0.7100
2888926.8200,711792.4600,0.9300
2888948.8300,711786.6000,0.9200
2888534.0500,711908.9400,0.7900
2888449.0100,711931.6700,0.8000
2888094.8300,712026.3800,0.4600
2887543.4400,712173.7600,0.7500
2887245.9400,712253.3100,1.0900
2887070.2000,712300.3900,0.5100
2886916.1700,712341.6800,-0.3100
2886858.7200,712357.0500,-0.2500
2886922.1200,712349.1900,-0.4200
2886942.2600,712343.8300,-0.3000
2887119.3400,712296.6000,1.0500
2888161.0900,712019.3800,0.6600
2888540.1500,711918.4800,0.5200
2889029.0700,711788.3200,0.5900
2889950.3700,711543.1700,0.8400
2888537.6000,711930.9800,0.6500
2888432.1800,711959.0600,0.2200
2888263.8300,712003.8400,0.7400
2888119.2100,712042.3300,0.7400
2888098.4300,712047.8600,0.7900
2888057.0500,712058.8700,0.7200
2888035.8500,712064.5100,0.8500
2888015.8700,712069.8200,0.9200
2887628.1300,712173.0200,0.8700
2887608.2700,712178.3100,0.8700
2887289.2400,712263.2500,0.9000
2887270.2800,712268.3300,0.6100
2887172.4000,712294.4000,0.8300
2887152.8100,712299.6100,0.9700
2887036.2500,712330.6800,0.7600
2886825.2600,712386.9600,0.1100
2887229.7000,712289.6100,1.0600
2887715.4700,712160.7800,0.6500
2888150.7500,712045.2600,0.9100
2888192.5200,712034.1700,0.9000
2888848.1800,711860.0700,0.8700
2889090.6700,711807.6400,0.9300
2888983.6500,711836.1300,0.7300
2888263.9700,712027.4600,0.8100
2888201.4500,712044.0700,0.9200
2888097.5300,712071.7000,0.8100
2888077.3600,712077.0600,0.8800
2888056.3600,712082.6400,0.9200
2888036.1700,712088.0200,0.8200
2888015.3700,712093.5400,0.9500
2887041.5300,712361.0500,0.1000
2887160.2900,712329.5900,0.8700
2887298.8800,712292.9400,0.9800
2887724.5100,712180.4100,0.4700
2887786.4800,712164.0200,0.4900
2888391.0400,712004.0600,0.3700
2888580.8000,711953.8100,0.7400
2888751.2300,711908.7100,0.6800
2889605.8000,711693.1200,0.8900
2889239.7200,711790.5500,0.7800
2888917.5000,711876.3200,0.3000
2888896.7100,711881.8200,0.7300
2888832.5700,711898.9100,0.2100
2888199.8200,712067.0700,0.9300
2887447.3800,712267.1100,0.9100
2887269.6200,712314.3500,0.4600
2887051.7000,712379.0000,0.4500
2887070.3100,712374.1100,0.1800
2887209.6200,712337.3400,0.3000
2887249.4700,712326.7900,0.7300
2887268.6100,712321.7700,0.3100
2887551.1900,712247.1600,0.8900
2887734.9800,712198.6500,0.9000
2887755.2300,712193.3300,0.5800
2889468.5700,711740.8600,0.8700
2889833.6400,711644.3900,1.0400
2889876.2800,711633.1200,1.0900
2889918.5600,711621.9500,1.0500
2889940.8500,711616.0600,1.0100
2888406.5800,712033.8400,0.8300
2888136.2400,712105.7000,0.8900
2887807.5500,712193.1100,0.3300
2887726.3700,712214.6500,0.8900
2887564.9300,712257.5700,0.8600
2887505.2100,712273.4600,0.7000
2887285.9700,712331.7100,0.7100
2887207.9800,712352.4500,0.3200
2887168.7700,712362.8500,0.4600
2887090.7300,712383.6500,-0.5600
2887235.4900,712351.1800,0.1500
2887294.7400,712335.5100,0.8800
2887335.3200,712324.8100,0.8700
2887456.2800,712292.9300,0.7600
2887496.5500,712282.3000,0.9000
2887947.8100,712163.3500,0.8100
2889261.7700,711816.9100,0.7400
2889498.2500,711754.5600,0.7500
2889519.1200,711749.0400,1.0300
2889841.4200,711664.0400,1.1500
2889884.2900,711652.7300,1.1500
2889905.1300,711647.2500,1.0200
2889576.8500,711743.9700,0.9500
2889361.0800,711801.3100,0.9800
2889275.2900,711824.1200,0.8700
2888486.7200,712033.6700,0.8100
2888464.9300,712039.4600,0.8200
2888276.9800,712089.3900,0.8600
2887906.2000,712187.9100,0.8300
2887844.7000,712204.2700,0.6700
2887442.2500,712311.2100,0.6900
2887401.9600,712321.9100,0.8000
2887362.2300,712332.4800,0.5900
2887343.1000,712337.5500,0.7300
2887126.8000,712395.0800,-0.1700
2887107.1700,712400.2900,-0.0300
2887241.8100,712370.6900,0.5800
2887461.7000,712312.6800,0.5300
2888691.1400,711988.4500,0.7800
2888904.4100,711932.2500,0.6500
2889247.1400,711841.9300,0.4100
2889418.8100,711796.6400,0.9600
2889504.6100,711774.0300,0.8300
2889632.9700,711740.2000,0.8800
2889783.3600,711700.5600,1.0200
2889954.1800,711655.5400,1.0200
2889935.7900,711669.4400,1.1500
2889849.8800,711692.2400,0.8600
2889525.5900,711778.2600,0.7800
2889203.1300,711863.7800,0.8900
2888732.9700,711988.5900,0.5500
2888585.5800,712027.7100,0.7800
2888417.0300,712072.4700,0.6800
2887677.2800,712268.9200,0.8000
2887636.8800,712279.7000,0.1000
2887576.4100,712295.7500,0.3000
2887516.3100,712311.6800,0.6600
2887456.7100,712327.5500,0.1400
2887416.8700,712338.0900,0.7400
2887179.1700,712401.2800,-0.0600
2887147.9100,712417.0300,-0.3200
2887529.0200,712316.2400,0.9000
2887569.6600,712305.4800,1.1800
2887856.6700,712229.6600,0.9500
2888399.2600,712086.3700,0.8500
2888526.7000,712052.7200,0.7700
2888569.2400,712041.5000,0.6700
2889379.4100,711827.5600,1.0000
2889614.8800,711765.4200,0.6700
2889743.8400,711731.4300,0.4100
2889893.5600,711691.9000,1.2000
2888581.0000,712049.3900,0.6200
2887629.6800,712301.3300,0.4100
2887469.3700,712343.7400,1.1500
2887171.6000,712422.8100,-0.5000
2887369.3200,712379.8100,0.6600
2889297.0400,711881.7600,0.8700
2888509.2000,712090.0300,0.8300
2887641.7800,712319.2900,0.5600
2887581.2900,712335.2300,1.1200
2887501.0000,712356.4300,1.3700
2887261.9700,712419.7100,0.2000
2887249.1100,712432.5700,0.3400
2887289.3400,712421.9800,0.2300
2887309.9400,712416.5800,-0.0600
2887330.1100,712411.2800,-0.3800
2888597.0000,712077.2800,0.7600
2888681.3100,712055.0800,0.1900
2888724.4700,712043.6900,0.3400
2889836.3000,711750.3600,0.6300
2888732.0200,712053.0800,0.7700
2887794.2100,712301.1100,1.0000
2887753.4300,712311.9700,0.0400
2887692.4000,712328.0800,0.4600
2888533.0300,712136.0700,0.8400
2888661.0900,712102.3900,0.7900
2888703.0300,712091.3800,0.5400
2888725.0200,712085.6100,0.3400
2888831.5000,712057.5800,0.6200
2889108.7800,711984.6400,0.8400
2889322.6300,711928.3900,0.7700
2889567.9100,711873.4800,1.0000
2888393.7100,712184.6100,-0.0500
2888163.3500,712245.5600,0.8400
2888725.2000,712105.5100,0.5900
2888788.5200,712088.8600,0.6700
2889237.5400,711970.7900,0.8700
2889623.6400,711869.2800,0.8100
2887398.5600,712468.0300,1.0700
2887338.7800,712483.8700,1.1100
2887412.3800,712471.5900,1.1300
2887452.7300,712460.9500,1.2300
2887945.0600,712331.2600,0.8700
2888028.4000,712309.2900,1.1600
2888702.0200,712132.0400,0.7200
2888722.5800,712126.6300,0.8100
2888915.0000,712076.0200,0.4000
2889192.9700,712002.8600,0.4700
2889364.3900,711957.7100,0.9300
2889685.7400,711873.1800,0.6300
2889964.4300,711799.8400,1.2100
2889327.1900,711978.1600,0.8100
2888812.2900,712114.3400,0.5300
2888158.6500,712287.3000,1.0600
2888074.9700,712309.4400,1.1700
2887992.4600,712331.2700,1.3200
2887931.3400,712347.4500,1.2300
2887890.4500,712358.2500,1.5700
2887665.4700,712417.8500,0.8200
2887646.2000,712422.9300,1.1100
2887565.3200,712444.3200,1.4200
2887505.2600,712460.2400,1.1500
2887384.8000,712492.1300,1.1500
2887326.0200,712507.7100,1.0300
2887266.7700,712523.4000,1.1200
2887310.2200,712521.1500,0.9700
2887371.2800,712505.0100,1.2900
2887391.2600,712499.7500,1.2100
2887614.1600,712440.9100,1.4600
2887882.4800,712370.1000,1.6000
2887944.6100,712353.7200,1.4400
2888069.5700,712320.7700,1.2400
2888111.3900,712309.7400,1.1500
2888871.1000,712109.3800,0.7500
2889128.1100,712041.5900,0.7900
2889277.5700,712002.1600,0.8200
2889920.2300,711832.7500,1.1100
2888927.7400,712105.8800,0.5000
2888229.1500,712290.4100,0.8500
2887472.8900,712490.2400,0.5600
2887392.7700,712511.3700,1.0400
2887372.9900,712516.5900,1.2500
2887352.5800,712521.9900,1.3500
2887293.5100,712537.6400,1.1200
2887214.2300,712558.6800,0.2400
2887224.6900,712566.3800,0.6300
2887466.2800,712502.7400,0.5800
2887547.9900,712481.1800,1.1300
2887898.9400,712388.7500,0.6800
2888170.3600,712317.1600,1.0900
2889021.2100,712092.7900,0.5300
2889191.6500,712059.5300,0.9000
2888849.2300,712150.0000,0.7600
2888217.1400,712316.7900,1.4700
2888175.1000,712327.9200,1.0700
2888091.6000,712349.9600,1.0800
2887927.2700,712393.3300,1.1600
2887825.0600,712420.3800,0.1100
2887641.1100,712468.9100,0.4800
2887380.6100,712537.6200,1.2100
2887361.4200,712552.6400,1.3600
2887957.6600,712395.7100,1.3400
2887998.9500,712384.8200,1.5200
2888209.5800,712329.3400,1.4400
2888230.5800,712323.8100,1.3100
2888272.7800,712312.6800,1.5100
2888421.1100,712273.6500,0.8500
2888868.2100,712155.8900,0.4200
2888932.3300,712138.9700,0.7900
2888952.9000,712133.5500,0.7800
2889467.1000,711998.0800,0.8100
2889489.1800,711992.2700,0.7100
2889937.8200,711873.9500,1.2300
2889994.6000,711869.1100,0.9400
2889909.1000,711891.7100,1.2900
2889801.4000,711920.2200,1.0800
2889220.5100,712073.9700,0.5600
2889198.8800,712079.6900,0.6200
2889156.0400,712091.0200,0.7300
2889091.8100,712108.0200,0.6300
2888920.8500,712153.2600,0.6300
2888898.8500,712159.0800,0.7100
2888286.3300,712321.0000,1.4200
2888203.1100,712343.0000,1.4700
2888161.6900,712353.9600,1.4600
2888098.8100,712370.6000,1.2700
2888037.3400,712386.8400,1.5000
2887975.2000,712403.3000,1.1100
2887851.7800,712436.0100,0.1500
2887830.8800,712441.5600,-0.1000
2887607.0500,712500.7800,-0.4600
2887366.3000,712564.3200,1.3900
2887238.1700,712606.1400,-0.0600
2887258.0700,712600.8800,0.3800
2887541.9000,712526.3000,-0.3300
2887809.5000,712455.9200,-0.0200
2887830.6000,712450.3600,0.1700
2888290.7600,712329.2000,1.4800
2888311.9600,712323.6100,1.7000
2888842.3500,712184.1100,0.6300
2888863.1100,712178.6400,0.8100
2888906.4800,712167.2300,0.7800
2888927.0400,712161.8100,0.7900
2888991.6000,712144.8400,0.5500
2889119.9300,712111.0500,0.8000
2889867.1400,711914.3400,1.2100
2889910.3300,711902.9700,1.0800
2889973.9700,711886.2500,0.6600
2889960.1300,711899.3100,0.8800
2888270.9100,712346.3700,1.4300
2888229.0700,712357.4700,0.9600
2888146.2000,712379.3900,1.0500
2888104.9500,712390.3000,1.1000
2888083.9100,712395.8600,1.2700
2887794.6900,712472.5000,-0.2900
2887712.8700,712494.1200,0.1600
2887590.4000,712526.5600,-0.2600
2887570.8700,712531.7100,-0.0900
2887549.8800,712537.2800,-0.2000
2887530.5500,712542.3700,0.0800
2887449.4200,712563.8100,0.4400
2887368.9900,712585.0800,0.6800
2887309.3100,712600.8600,0.8000
2887497.7000,712558.3600,0.0700
2887559.6300,712542.0900,-0.0100
2888078.2800,712405.6800,1.2600
2888119.7300,712394.7800,1.1900
2888204.2200,712372.5500,1.4200
2888266.6300,712356.1400,1.4400
2888288.4500,712350.4100,1.3600
2888861.1700,712199.8700,0.6600
2888946.9000,712177.3200,0.8300
2889502.7800,712031.1600,0.7700
2889844.0800,711941.3400,1.1900
2889907.8000,711924.5900,1.0400
2889985.6600,711912.7400,1.1200
2889942.6300,711924.1400,1.0700
2889125.8100,712140.4900,0.8500
2888340.9200,712348.3200,1.4000
2888299.1200,712359.4000,1.2700
2888277.3000,712365.1700,1.3900
2888153.0400,712398.0900,1.2300
2888132.2100,712403.6100,1.1400
2888048.6700,712425.7400,1.1400
2887781.5400,712496.5700,0.0900
2887760.8300,712502.0600,-0.0300
2887456.5900,712582.6400,0.0400
2887436.7900,712587.8900,-0.0600
2887276.0900,712630.4900,-0.4800
2887310.5600,712627.8700,-0.0800
2888094.6100,712421.6500,1.1600
2888116.4700,712415.9000,1.2400
2888136.8800,712410.5300,1.3300
2888326.7900,712360.6200,1.2400
2888369.1800,712349.4700,1.3100
2889584.7300,712029.9500,1.0900
2889842.4500,711971.1600,1.3100
2889262.8300,712124.6900,0.9400
2889177.8200,712147.2500,0.3600
2889113.7800,712164.1700,0.8600
2888391.0000,712355.6300,1.0500
2888370.6300,712361.0000,1.3800
2888349.4300,712366.6100,1.5400
2888328.6400,712372.1200,1.4400
2888119.7400,712427.5000,1.1000
2888098.0800,712433.2500,0.9400
2887974.0000,712466.1900,-0.0100
2887953.7400,712471.5700,-0.2000
2887932.8900,712477.0700,0.1500
2887463.6100,712601.4400,-0.0300
2887382.8000,712622.8200,0.3600
2887302.7900,712644.0700,-0.2500
2887282.9200,712649.3500,-0.4600
2887329.9000,712644.0300,0.0900
2887370.6000,712633.2800,0.4200
2887411.0100,712622.6500,0.2200
2887430.5100,712617.5800,-0.7200
2887967.6100,712475.9900,0.0800
2888155.9900,712426.3300,1.3100
2888261.0400,712398.6600,1.5600
2888408.5800,712359.8400,1.3700
2889067.3700,712186.5000,0.8600
2889345.2200,712113.3900,0.7200
2889943.1500,711956.1100,1.2600
2889124.4900,712182.2700,0.7300
2889038.8700,712204.8800,0.8000
2888611.9100,712317.8000,0.5800
2888274.1700,712407.0900,1.3700
2888147.8200,712440.5200,1.2600
2888127.8000,712445.8400,1.0400
2888023.5600,712473.4100,0.9700
2887982.0000,712484.4700,0.0700
2887429.4700,712630.6800,-0.4400
2887368.9000,712646.6100,0.9500
2887349.4700,712651.7600,0.8200
2887989.6800,712492.3800,0.0500
2888136.4200,712453.6100,1.3000
2889261.5000,712157.0800,0.7800
2889282.9100,712151.4300,0.8100
2889496.8300,712095.0300,1.0100
2889517.6700,712089.5400,0.9800
2889264.0000,712167.8400,0.7000
2889220.5500,712179.3100,0.6400
2889048.8900,712224.6200,0.5600
2888431.8000,712387.4400,1.2500
2888410.6000,712393.0200,1.4600
2888368.3900,712404.1700,1.2700
2888137.3600,712465.1600,1.0600
2887991.9500,712503.6300,-0.1900
2888094.2700,712487.2200,1.4400
2888116.1100,712481.5000,0.9400
2888263.2900,712442.6800,1.4900
2888474.2700,712387.1200,1.2600
2889898.7000,712022.1800,1.2800
2889834.4300,712039.1600,1.3000
2889297.9900,712180.9100,0.7500
2889212.5400,712203.4800,0.8200
2889061.9600,712243.2800,0.6200
2888487.0800,712395.0300,1.1400
2888465.9000,712400.6100,1.2300
2888254.6900,712456.3500,1.4100
2888222.4000,712474.6300,1.3800
2888328.0800,712446.8200,1.4800
2888475.8500,712407.9500,1.3900
2888518.2200,712396.8000,1.3900
2888667.7100,712357.5100,0.8800
2889223.9600,712211.1800,0.8100
2889395.5500,712166.0600,0.5600
2889829.4600,712061.8400,1.2800
2889528.4700,712141.4400,1.0000
2889314.0800,712198.1400,0.9100
2889120.4000,712249.3500,0.9100
2888544.1000,712401.6700,0.8800
2888522.9200,712407.2400,1.1500
2888311.5800,712463.0500,1.6200
2888443.9400,712437.7700,1.4900
2889468.3000,712168.5300,0.8500
2889831.2000,712073.0600,1.2000
2889852.5500,712067.4400,1.1400
2889915.7900,712050.8000,1.2000
2889161.7900,712259.5600,0.8600
2889097.0100,712276.7100,0.7500
2888542.1300,712423.4400,1.4300
2888457.3700,712445.8700,1.1800
2888163.0000,712523.8100,0.1100
2888017.6800,712562.2800,-0.1400
2888815.9600,712360.8500,0.7700
2889222.6700,712253.9600,0.7100
2889543.2300,712169.7100,0.8000
2889778.8400,712107.7500,1.0800
2889799.9600,712102.2000,1.0900
2889842.8500,712090.9300,0.9800
2889885.3300,712079.7500,1.1800
2889927.4500,712068.6900,1.0300
2889504.3300,712189.6100,0.7000
2889290.2800,712246.2300,0.9300
2889268.4700,712252.0100,0.7800
2888797.8900,712376.5400,0.7900
2888691.2300,712404.7700,0.7300
2888184.3800,712538.9800,-0.1600
2888043.8000,712584.3000,-0.1800
2888169.7700,712551.1800,0.0100
2889298.7900,712254.3500,0.7200
2889576.9600,712181.2200,1.0000
2889747.3100,712136.4600,0.8600
2889875.7000,712102.7100,1.1300
2889917.8300,712091.6500,0.8800
2889960.1400,712080.5200,1.1400
2889527.0200,712204.0100,0.9800
2889333.1600,712255.3000,1.0000
2889312.1800,712260.8700,0.6800
2888734.9300,712413.6300,0.7900
2888187.6700,712558.6200,-0.2100
2888062.8800,712591.6600,0.0000
2888610.2500,712456.4500,1.1900
2888694.5700,712434.2600,0.8100
2889207.2100,712299.1900,0.9500
2889826.2500,712136.2100,0.9600
2889952.9400,712102.9000,0.8200
2889920.9200,712121.6600,0.9000
2889318.8300,712280.6600,0.8200
2888805.5800,712416.2300,0.8300
2888340.5700,712539.1200,1.6500
2888194.0000,712578.0000,-0.1300
2888152.7400,712588.9100,-0.1600
2888099.5200,712613.4900,-0.0300
2888183.7300,712591.2900,-0.1100
2888204.7800,712585.7400,-0.1100
2888629.0500,712473.7400,1.3100
2888948.8100,712389.4400,0.8000
2889887.8600,712141.7800,1.2100
2888391.4800,712548.2300,1.7100
2888349.2800,712559.3900,1.5600
2888394.3900,712558.3500,1.6000
2888670.4200,712485.6000,1.1900
2888548.8200,712529.3700,1.2700
2888506.4700,712540.5600,1.5300
2888359.3800,712579.5100,1.0900
2888296.3400,712596.2700,-0.0700
2888275.5400,712601.7700,0.0000
2888254.7400,712607.2700,0.0800
2888233.1000,712613.0000,-0.0500
2888266.1900,712614.1900,-0.5600
2888350.9700,712591.7300,1.2800
2888711.2100,712496.8700,0.8200
2889969.6100,712175.0400,0.6500
2889948.4300,712180.6300,1.0500
2889862.5100,712203.4000,1.1300
2889840.7900,712209.1500,1.1900
2888686.8000,712515.0300,0.8300
2888644.2700,712526.2900,1.0600
2888453.2700,712576.8600,1.4300
2888432.9000,712582.2600,1.3600
2888411.7100,712587.8700,1.5200
2888390.9200,712593.3800,1.5000
2888306.4700,712615.8600,-0.0500
2888289.4200,712629.1200,-0.2200
2888310.4600,712623.5600,0.0600
2888372.9700,712607.0200,1.2900
2888500.8800,712573.3400,1.3800
2888990.5200,712444.4800,0.7900
2889097.1100,712416.4800,-0.1400
2889974.2300,712185.4200,1.0100
2888998.5900,712453.3900,0.7300
2888956.0600,712464.6700,0.8600
2888700.1000,712532.5500,1.1500
2888426.0400,712605.2500,1.2200
2888299.8000,712638.8400,-0.1500
2888546.4800,712582.3000,1.7500
2888994.3700,712464.4200,0.8800
2888481.6500,712611.6300,1.3800
2888439.4900,712622.8100,1.5300
2888417.6900,712628.6100,1.3600
2888338.9600,712658.3800,-0.1100
2888466.3500,712624.6800,1.5500
2889746.3900,712287.2900,0.9500
2889048.1400,712482.2900,0.4700
2888665.0900,712583.9300,1.4600
2888495.3200,712629.0300,1.2900
2888410.1300,712661.4000,0.9200
2889047.6300,712492.8900,0.8200
2889624.9400,712340.2700,0.9700
2888829.0900,712562.3900,0.8900
2888679.9200,712601.9100,1.1900
2888638.2000,712612.9600,1.3800
2888595.8500,712624.1700,1.5800
2888468.7700,712657.8200,1.9900
2888373.2000,712694.6500,0.4800
2888627.1400,712627.3900,1.6100
2889139.8500,712491.8000,0.8500
2889316.2200,712456.7400,0.5700
2889272.6500,712468.2900,0.6700
2889101.5200,712513.6700,0.8800
2889059.4200,712524.8300,0.8300
2888507.9700,712670.8700,2.0700
2888975.1300,712558.1400,0.7300
2889810.3700,712337.2900,0.9800
2889873.6800,712320.5400,0.9600
2889916.9300,712309.0900,1.0200
2889588.9200,712406.5700,1.0300
2889310.1900,712480.6300,0.9200
2888524.4800,712689.1900,2.0300
2888419.9300,712717.0800,0.1200
2888536.4100,712695.5300,1.8500
2888939.4500,712589.1200,0.7800
2888961.0400,712583.4100,0.9100
2889152.1000,712532.9300,0.9200
2889280.8900,712498.9000,0.8800
2889345.1100,712481.9300,0.9100
2889451.9800,712453.6900,0.9800
2889864.0200,712354.4300,1.0700
2889520.3800,712445.8500,0.6700
2889498.9600,712451.5200,1.0200
2889455.5700,712463.0800,0.7700
2889134.9400,712548.3500,0.8900
2888583.2400,712695.0000,1.6500
2888436.7600,712734.0700,0.0100
2888415.3500,712739.7600,-0.0600
2888438.1300,712742.4000,-0.1800
2888501.2300,712725.6100,1.6400
2889052.6400,712580.0300,0.8700
2889886.1900,712359.9000,0.3900
2889944.6000,712353.7700,0.6000
2889752.3400,712404.9300,1.0500
2889151.9900,712564.8100,0.3700
2888685.6300,712688.9300,1.3600
2888538.6800,712728.0400,1.5900
2888444.1600,712761.6700,-0.1300
2888569.8900,712728.3400,1.7100
2888612.5100,712717.0800,1.6700
2888675.7100,712700.4200,1.2400
2889016.9700,712610.3000,0.8300
2889358.7000,712520.0300,0.9400
2889765.9200,712412.4600,0.9000
2889490.1300,712496.0900,1.0200
2888808.8800,712677.6400,0.6000
2888556.6000,712744.8100,1.5800
2888557.4500,712753.6900,1.6600
2888641.0300,712731.5900,1.4300
2889002.1900,712636.0900,0.7000
2889642.6900,712466.6300,0.8500
2889749.3600,712438.3900,1.0700
2889893.5100,712410.5800,1.1100
2889849.9400,712422.1600,1.0900
2889271.6400,712575.9000,0.9500
2888719.6000,712722.8000,1.2800
2888698.8500,712728.3100,1.4600
2888635.3500,712745.2200,1.3700
2888614.7900,712750.6900,1.4100
2888593.8200,712756.3000,1.1600
2888572.0400,712762.0600,1.6400
2888551.8800,712767.4300,1.6200
2888629.4200,712757.5100,1.5300
2889821.4500,712441.4600,0.8300
2889139.9600,712634.3200,0.7100
2888842.7700,712713.3300,0.2300
2888779.0900,712730.1900,1.2400
2888715.1900,712747.1800,1.0600
2888652.5000,712763.8200,1.3200
2888631.7300,712769.3300,1.5100
2888609.9500,712775.1200,1.4600
2888505.8600,712802.7900,1.4200
2888528.4500,712808.0700,1.4100
2888549.0500,712802.6200,1.2900
2888759.6300,712746.8300,1.1400
2889100.1700,712656.5900,0.8900
2889712.9800,712505.9300,0.7400
2889347.6500,712603.1000,0.7000
2889092.3500,712670.9500,0.9100
2888922.5400,712716.0800,0.8900
2888900.5700,712721.9200,0.8200
2888880.0300,712727.3800,0.9000
2888710.7700,712772.3300,1.3100
2888626.7100,712794.6700,1.3300
2888605.7400,712800.2300,1.5300
2888542.2000,712817.1300,1.3400
2888848.7700,712746.7100,0.8100
2889640.9400,712537.0400,1.0100
2889662.3100,712542.9900,0.7400
2889577.0700,712565.6600,0.9600
2889555.6800,712571.3600,0.8400
2889170.1600,712673.9600,0.5600
2888978.3800,712724.9300,0.9500
2888788.6200,712775.3900,0.9600
2888703.9700,712797.8900,1.2200
2888578.3700,712831.2800,1.3200
2889700.8200,712555.3800,0.6100
2889293.8200,712663.6900,0.9800
2889273.0700,712669.2100,0.9300
2888995.8300,712742.9800,0.9000
2888637.5100,712838.2800,1.4300
2888616.3300,712843.9200,1.2600
2888609.3400,712855.0900,1.4500
2889738.0700,712568.0100,1.0500
2889224.2700,712704.7000,0.8300
2889203.5200,712710.2200,0.9000
2889053.6200,712750.0800,0.8500
2889033.0800,712755.5400,0.9200
2888466.2500,712914.9200,-0.2000
2888529.1600,712898.2900,0.2700
2888549.5800,712892.9000,0.2900
2889678.4200,712595.0200,0.9500
2889935.7300,712527.1300,0.9200
2889859.4700,712557.9200,1.1100
2889259.0700,712717.3900,0.9800
2888772.3700,712846.7200,1.2700
2888688.9300,712868.8800,1.4900
2888647.2000,712879.9600,1.6100
2888626.0200,712885.6000,1.4300
2888564.0700,712902.1500,0.1900
2888543.4900,712907.6400,-0.0100
2888501.9100,712918.6700,0.1700
2888480.7000,712924.3300,-0.0900
2888515.3800,712924.7000,0.2700
2888536.8100,712919.0500,0.1600
2889876.2800,712565.2700,1.1100
2889962.6500,712542.4600,1.2000
2889874.2600,712577.6000,1.3000
2889337.8300,712719.6600,0.8000
2888662.1700,712898.6800,1.5500
2888711.0200,712897.3800,1.4300
2889605.6300,712661.0700,0.6700
2889904.4700,712582.0800,1.2500
2889969.1600,712564.9900,1.1700
2888657.0800,712924.2500,1.3900
2888671.1800,712931.7400,1.4500
2889586.0800,712690.6000,1.0900
2888668.3000,712945.5000,1.1100
2888775.6800,712927.6300,1.2800
2889242.7900,712804.7100,0.9400
2889931.3500,712634.5800,1.1300
2889738.7700,712685.6100,1.0200
2889567.0900,712731.0900,0.9400
2889416.5700,712770.9700,0.9000
2889034.6000,712872.0800,0.9400
2888719.2800,712955.5500,1.0400
2888676.9100,712966.7400,1.3700
2888607.7800,712994.5300,-0.2300
2889498.0300,712760.3500,0.9900
2889733.8700,712698.3200,1.0300
2889798.4100,712681.3400,1.1200
2889790.1600,712694.7900,1.0800
2889255.7500,712836.4900,0.9500
2889170.0800,712859.2100,0.7300
2889022.1300,712898.4000,1.0200
2888853.5900,712943.0700,1.1200
2888769.4900,712965.3600,1.0300
2888748.9200,712970.8100,1.1600
2888706.3400,712982.0800,1.3400
2888622.9400,713004.3000,-0.2900
2888602.5500,713009.6900,-0.0700
2888835.5300,712957.0700,1.1000
2889752.0500,712716.0200,1.1200
2889837.0500,712693.6700,1.0300
2889966.2800,712669.6900,1.0700
2889495.0300,712794.7000,0.9700
2889217.5800,712868.3000,0.9600
2889132.1200,712890.9800,0.9200
2888920.8800,712947.0400,0.7700
2888617.0300,713036.4800,-0.1400
2889378.6100,712835.7900,0.5500
2889850.5700,712711.4200,0.9800
2889859.9600,712719.5100,0.8900
2889366.8100,712850.2700,0.8400
2888877.8000,712980.1000,1.0900
2888857.2400,712985.5600,1.0600
2888815.2900,712996.7000,1.0500
2888794.1100,713002.3500,0.8000
2888773.5400,713007.7900,1.0300
2888752.5600,713013.3800,0.8000
2888689.1900,713030.2300,0.4400
2888627.6100,713046.6300,-0.1200
2888606.6000,713052.2300,-0.4300
2888735.4500,713028.1100,1.2300
2889990.8600,712695.9600,0.7800
2889774.0700,712764.6500,0.9600
2889280.1200,712895.6600,0.9800
2889109.9400,712940.8400,0.7600
2889089.3800,712946.3000,0.6400
2888709.2900,713047.1200,1.2900
2888626.6500,713069.1700,-0.3700
2888636.7300,713077.4800,-0.0200
2889918.3000,712748.9600,0.7100
2889553.9800,712845.8100,0.8300
2889084.7400,712970.5100,0.9200
2888852.8500,713032.1200,1.0900
2888622.3000,713093.4700,-0.0400
2888790.6600,713059.3100,1.2700
2889866.6600,712784.9900,1.0900
2889161.5200,712973.0100,0.9600
2888761.9400,713079.5300,1.1800
2888699.3900,713096.1700,1.6500
2888677.7800,713101.9500,1.4300
2889750.4200,712826.9800,0.8700
2889814.9200,712820.8000,1.0300
2889622.0600,712872.3700,1.0600
2889280.4600,712963.7200,0.9200
2888814.9600,713088.1300,1.0500
2889120.5500,713028.4600,0.8000
2888992.7600,713062.6900,1.0400
2888845.5700,713102.1400,1.1700
2888782.0200,713119.1700,1.1800
2888761.8500,713124.5900,1.0100
2888720.2800,713135.7200,1.2300
2888699.0800,713141.3900,1.3700
2888678.6900,713146.8700,1.2200
2888616.4400,713163.6800,-0.5200
2888645.6500,713164.4800,-0.0900
2888687.6900,713153.2000,1.1900
2888855.9500,713108.4300,1.2100
2889836.2000,712847.6200,0.9600
2889900.7000,712830.4900,0.5800
2889922.0900,712824.7600,1.1100
2889854.5300,712853.0500,0.8500
2889490.1000,712950.9200,0.4100
2889150.7800,713042.0100,0.9100
2889024.2500,713075.9800,1.0800
2888813.5900,713132.5700,1.0800
2888772.0400,713143.7100,1.3200
2888625.6400,713183.1900,-0.8300
2888768.7600,713153.9000,1.1200
2889127.6300,713058.1300,0.8500
2889148.9800,713052.4300,0.9400
2889838.0500,712879.7300,1.1000
2889090.8000,713080.3500,1.0300
2888859.5700,713142.5000,0.9200
2888629.2100,713204.5000,-0.5000
2888620.8200,713217.7500,-0.0900
2889936.4200,712865.1300,1.1100
2889035.5100,713118.5200,0.8600
2888824.3500,713175.2400,1.1400
2888802.9500,713181.0000,0.9300
2888782.5800,713186.4600,1.2100
2888740.1800,713197.8500,1.2000
2888636.0700,713237.0300,0.1800
2889339.5200,713059.8000,0.5700
2889063.3200,713134.1700,0.8700
2888978.8900,713156.8900,1.0700
2888851.4800,713191.2100,1.1600
2888663.2100,713241.9300,1.0100
2888641.9700,713247.7200,0.0300
2888629.4400,713261.5200,-0.1800
2889010.0100,713159.2800,0.7600
2889265.5700,713090.6500,0.8800
2889925.0100,712924.4600,0.7700
2889882.1700,712936.0100,1.0400
2889560.6100,713022.8400,1.0000
2889134.5800,713137.8700,1.0000
2888965.3500,713183.5800,0.6800
2888859.7300,713212.0600,1.1300
2888775.6300,713234.7600,1.3000
2888649.0300,713269.0200,0.0700
2888631.3400,713283.8600,-0.1100
2889033.2400,713175.7800,0.9400
2889908.0400,712940.6700,1.1400
2889788.2000,712984.0400,1.2100
2889466.9200,713071.0000,0.7900
2889424.6300,713082.4500,0.7000
2889402.4800,713088.4800,0.1700
2889146.8900,713157.5700,0.8500
2888913.5700,713220.6600,1.0900
2888725.0000,713271.6600,1.1900
2888640.9800,713294.4400,0.4300
2888635.7000,713305.0900,0.2000
2888974.4100,713213.9600,0.8100
2889016.5200,713202.6200,1.0600
2889228.8000,713145.5400,0.9800
2889952.8200,712961.7000,1.0000
2889587.6400,713060.6600,0.9400
2888969.8800,713228.0500,1.0600
2888886.0600,713250.7600,1.0000
2889232.8100,713167.4700,1.0100
2889767.3200,713023.6200,1.0900
2889946.8000,712986.4000,0.6000
2889861.1900,713009.5500,1.1700
2889517.1800,713102.7800,0.9200
2889113.8000,713212.1400,0.7700
2888755.0000,713309.3900,1.3400
2888713.0300,713320.7900,1.0300
2888629.4700,713343.4600,0.8600
2889561.1300,713102.6500,0.8200
2889711.2300,713062.1600,0.9200
2889988.9000,712999.1200,0.8000
2889560.3000,713115.0400,1.0400
2888817.4500,713316.1200,1.1400
2888670.7400,713355.8500,1.0700
2888663.4000,713369.6400,0.9600
2889705.3500,713088.2500,1.1300
2889820.5100,713069.4600,1.0300
2889627.2500,713121.7700,1.0300
2889137.8100,713254.2400,0.3600
2888801.0600,713345.2500,1.1200
2888696.5300,713373.5100,1.2800
2888654.9200,713384.7800,1.0500
2888571.2200,713407.4900,0.0000
2889716.3000,713121.7800,1.0600
2889673.4200,713133.4200,0.7000
2889141.2000,713277.5500,0.9000
2888679.3000,713402.5900,1.2600
2888733.4000,713398.8000,1.1600
2888838.5700,713370.4700,1.0800
2889008.3900,713324.7200,1.0600
2889093.2400,713301.8900,0.6000
2889830.4200,713114.9100,0.9400
2889787.2800,713126.5900,1.0600
2889766.3300,713132.2800,0.9500
2889616.0800,713173.0100,0.9100
2889233.2700,713276.7300,1.0000
2888978.7900,713345.6600,1.0300
2888936.6800,713357.0600,1.0600
2888915.7300,713362.7400,0.9600
2888893.7500,713368.7000,0.8900
2888789.1200,713397.0200,1.0900
2888685.2200,713425.1600,1.2400
2888622.8000,713442.0900,0.7900
2888604.6600,713456.6700,1.1800
2889217.6500,713291.7500,0.9300
2889498.0800,713228.6000,0.4500
2889411.9300,713251.9300,0.6600
2889199.8000,713309.3900,0.9700
2888882.9700,713395.2800,0.5500
2888862.4200,713400.8100,1.0400
2888841.2400,713406.5500,0.9700
2888757.5300,713429.2400,0.9200
2888631.5500,713463.3700,1.0300
2888548.6300,713485.9200,-0.0400
2888542.9400,713496.2900,-0.1800
2888690.3100,713456.5500,1.2300
2889028.4800,713365.6100,1.1000
2889134.5300,713337.1000,1.0100
2889240.7500,713308.5600,0.7000
2889411.6400,713262.6200,0.4700
2889945.8200,713118.9100,1.0500
2889830.2500,713161.3700,1.0000
2889191.0000,713334.5800,0.9200
2888874.4300,713420.3400,0.9300
2888833.1000,713431.5500,0.6600
2888811.9300,713437.2600,1.0500
2888791.1700,713442.8700,1.1900
2888665.8500,713476.8300,1.1300
2888649.4000,713490.4800,1.0400
2889795.9000,713181.8800,1.0400
2889733.4300,713210.0800,0.9500
2889306.9300,713325.4600,0.8800
2889158.4200,713365.6700,0.8000
2888905.0800,713434.2400,1.0800
2888821.0200,713457.0100,0.9800
2888696.3400,713490.7500,1.1100
2888654.9600,713501.9500,1.2300
2888613.3400,713513.2200,1.1600
2888509.1800,713551.9800,-0.3100
2888697.2300,713501.1500,1.3100
2889501.0800,713284.4700,0.6200
2889684.5800,713247.1700,0.8900
2889237.0200,713368.0100,0.9000
2888772.8300,713493.3400,1.0600
2888709.6300,713510.3900,1.2800
2888606.7700,713538.1600,1.2900
2888523.7300,713560.7100,-0.4000
2888553.2100,713564.0500,0.7500
2888595.1600,713552.7200,1.2000
2888678.1200,713530.3600,1.2800
2889892.9500,713215.0600,1.0200
2889019.7200,713450.9200,0.7800
2888872.3700,713490.6800,1.1400
2888559.0100,713586.1100,1.1600
2889705.5000,713277.5200,0.7300
2889855.1300,713237.1900,1.3900
2889481.3300,713349.8500,0.9000
2888723.4400,713554.7000,1.0300
2888557.1400,713599.6400,1.2000
2888516.0600,713610.7500,1.0000
2888474.9400,713621.8900,0.6900
2889284.1900,713413.7200,1.0300
2889689.2600,713304.7800,0.9600
2889905.0100,713258.0700,1.0700
2889520.4400,713362.1600,0.7200
2889286.1800,713425.4900,0.8900
2888969.6200,713511.0700,1.1100
2888657.2600,713595.5200,1.3300
2888553.7300,713623.5200,1.2800
2888512.4300,713634.7000,1.1200
2889568.2900,713359.7700,0.6100
2889739.2500,713313.8100,0.5800
2889923.3100,713275.2700,1.0900
2889751.5300,713321.8000,0.5000
2889178.3800,713476.8400,0.9600
2888614.7100,713629.2900,1.4100
2888594.2800,713634.8200,1.3000
2888511.7100,713657.1800,1.0900
2888437.9200,713685.6900,-0.1500
2888521.0200,713663.2700,1.2600
2888583.0700,713646.5800,1.4600
2888646.4800,713629.5600,1.2400
2888897.8900,713562.0200,1.1100
2888881.7500,713579.0600,1.1300
2888634.5000,713646.0000,1.2100
2888613.4800,713651.6800,1.3000
2888572.2400,713662.8300,1.5100
2888511.3100,713679.3700,0.9700
2888449.0700,713696.2900,0.0400
2889500.0700,713422.0000,0.6100
2889691.3200,713370.5500,0.6700
2889702.2700,713379.1600,0.5800
2888651.2400,713663.4800,1.0800
2888589.3800,713680.2000,1.3800
2889004.2300,713578.9400,0.9400
2889703.7900,713390.4000,0.8300
2889894.3600,713350.6200,0.8700
2889595.9600,713431.2700,0.4000
2889447.0100,713471.4900,0.5400
2889298.0400,713511.7000,0.8500
2889129.4900,713557.2100,1.0100
2889087.5900,713568.5400,0.8800
2888815.5200,713642.0100,1.0500
2888546.6100,713714.6200,1.3100
2889497.4100,713469.2800,0.4200
2889582.8500,713446.2300,0.6600
2889625.1700,713434.8200,0.8500
2889945.9800,713348.3400,1.2500
2889911.7900,713369.3500,1.2500
2889869.0900,713380.9000,1.2400
2889847.3400,713386.7900,1.1000
2889655.9300,713438.5800,0.8800
2889612.6600,713450.2800,0.8500
2889400.5900,713507.6100,0.8700
2888525.2000,713744.2700,0.8100
2888719.6600,713701.9300,1.1100
2888541.2100,713763.2400,1.1500
2888479.7400,713779.9500,0.0400
2888539.5200,713772.7000,1.0900
2889935.9300,713396.7600,1.1600
2889984.9800,713394.5600,1.2500
2889791.6100,713446.9900,0.9400
2889514.4600,713522.1200,0.5100
2888821.6000,713709.8300,1.0600
2888738.9800,713732.2200,1.0800
2888984.1200,713675.0300,1.0800
2889533.1200,713527.2200,0.7800
2889911.9000,713436.5600,1.2000
2889719.4600,713488.7800,0.8400
2889592.4900,713523.2200,0.7800
2889400.9200,713575.1800,0.8000
2889273.3100,713609.7700,0.9900
2889252.9800,713615.2900,0.9700
2888918.4900,713706.0000,1.1400
2888690.6600,713767.8000,1.0600
2888587.6600,713795.7400,1.0100
2888567.6100,713801.1800,0.9300
2888526.8800,713812.2400,0.8100
2888607.7400,713798.7800,1.1000
2889596.8800,713532.3300,0.7700
2889638.7800,713521.0400,0.8300
2889853.0200,713463.3000,1.2100
2889961.4100,713445.3400,1.2600
2889896.9500,713462.8200,1.2300
2889535.9200,713560.8500,0.8400
2888618.5500,713809.9800,1.1700
2888598.1100,713815.5200,1.3600
2888536.7200,713832.2200,1.0400
2888444.0200,713866.7600,-0.4200
2888670.8500,713805.3300,1.1800
2889151.3700,713675.5400,0.9800
2889970.5200,713465.8900,1.2700
2889906.2400,713483.3100,1.1600
2889862.7100,713495.0900,1.3200
2889713.7100,713535.5100,0.7900
2888625.5900,713830.6900,1.2100
2888565.0200,713847.1400,1.1200
2888463.5900,713885.4200,0.1200
2889978.5600,713487.5700,1.3000
2889956.6000,713493.5300,1.2900
2888819.2500,713801.8700,1.1300
2888594.0400,713862.9200,1.1600
2888512.7200,713884.9800,0.9800
2888748.8400,713831.3500,1.0300
2889718.5800,713569.2700,0.3700
2889875.8400,713538.0900,1.2800
2888969.1200,713784.2400,0.9400
2888906.9600,713801.1000,1.1100
2888516.6800,713907.0400,1.1700
2888638.8400,713883.6300,1.0100
2889582.3000,713628.6900,0.6600
2889944.6600,713530.7100,1.3400
2889687.2400,713612.4800,0.6400
2889012.8000,713795.6700,0.7900
2888909.4800,713823.7300,0.9100
2888888.8800,713829.3200,0.8500
2888744.5500,713868.5700,0.3300
2888641.1600,713896.6000,1.1600
2888386.0400,713974.9500,0.0500
2889005.6800,713807.5000,0.8900
2889968.1500,713558.8000,1.0900
2889861.6200,713587.7600,1.1300
2889204.3200,713766.5200,0.8100
2888934.0900,713839.9900,1.0700
2888830.4600,713868.1700,1.0800
2888789.4200,713879.3500,0.8800
2888707.0800,713901.7300,1.0000
2888687.4500,713907.0700,0.9700
2888666.1900,713912.8400,1.1100
2888646.5500,713918.1800,1.1400
2888625.2800,713923.9600,1.2200
2888605.6200,713929.3200,1.0400
2888584.5100,713935.0800,0.8100
2888524.0800,713951.5100,0.9000
2888483.2700,713962.6000,0.9400
2888979.0200,713836.8800,1.0700
2889000.2200,713831.1600,0.9600
2889549.5500,713682.7900,0.3800
2889933.6500,713578.9500,1.2400
2889955.4200,713573.0600,1.3000
2889650.1400,713667.4000,0.8100
2889523.3800,713701.9100,0.4900
2889438.6500,713724.9400,0.6900
2888874.9200,713878.2900,1.1100
2888669.6500,713934.1500,1.0500
2888628.9300,713945.2400,0.8900
2888607.8500,713950.9600,1.0300
2888466.4600,713989.4300,1.1100
2888471.1100,713996.0700,1.2800
2888533.2700,713979.2400,1.3700
2888990.1100,713855.7000,0.9700
2889116.0600,713821.6600,1.0200
2889730.7300,713655.5700,0.7100
2889751.4700,713649.9700,0.6600
2889990.5300,713596.8300,1.0200
2889926.8700,713614.1200,1.1900
2889905.9400,713619.8200,0.9500
2889883.9700,713625.7700,1.2600
2889735.6400,713666.1700,0.3200
2889649.7100,713689.5500,0.3000
2889480.2600,713735.6300,0.8200
2889374.5900,713764.4200,0.4400
2889081.6600,713844.1600,0.1500
2889019.5600,713861.0000,1.0500
2888997.9500,713866.9000,0.7300
2888688.3300,713951.1400,1.0900
2888668.6900,713956.5100,0.8900
2888627.9800,713967.5700,1.1000
2888606.8900,713973.3100,1.1100
2888587.2400,713978.6600,1.1500
2888526.4000,713995.2000,1.4200
2888465.6600,714011.7600,1.0200
2888424.9800,714022.8600,0.6400
2888527.2300,714004.4600,1.3300
2888548.1500,713998.8000,1.3400
2888650.7600,713971.0300,0.9600
2889992.4400,713619.4500,1.2500
2889459.6400,713764.1600,0.5200
2889353.7000,713792.9400,0.3900
2889333.1500,713798.5000,0.6300
2889101.9400,713861.2500,1.0300
2889019.4200,713883.6600,1.0700
2888978.0200,713894.9100,1.0100
2888936.8100,713906.1200,0.7400
2888832.7200,713934.3600,1.0400
2888750.3600,713956.7200,1.1400
2888730.3000,713962.2000,0.7600
2888607.2800,713995.6000,0.8300
2888545.8000,714012.2800,1.0500
2888868.1600,713935.6500,0.8100
2889567.4500,713758.6400,0.7200
2889419.0600,713798.9100,0.8400
2889208.5300,713856.0500,0.8100
2889041.3300,713901.4300,0.8500
2888752.9200,713979.7000,1.1100
2888690.2000,714006.9800,1.1400
2889607.8300,713770.9200,0.5400
2888978.3400,713941.8700,1.0700
2888731.2500,714008.9900,1.1100
2888690.5300,714020.0600,1.0000
2888547.8800,714058.8800,0.0700
2888250.4000,714148.2800,0.0000
2888454.4900,714093.1400,0.1300
2888722.7900,714020.5800,1.1500
2889183.6100,713896.0700,0.9500
2889627.2400,713776.1900,0.6500
2889861.9300,713724.3700,1.0000
2889775.9700,713747.7400,0.8500
2889584.7600,713799.7200,0.6700
2889478.6600,713828.5500,0.7400
2889122.0300,713925.4700,0.9600
2888524.9900,714087.8300,-0.1900
2888484.5400,714098.8300,-0.2400
2888463.9900,714104.4200,-0.2600
2888303.0600,714156.2500,-0.3700
2888323.4900,714150.7100,-0.1500
2888383.6400,714134.4800,-0.2400
2888465.3600,714112.3800,0.1900
2888568.8700,714084.4400,0.0700
2889416.4700,713867.7100,0.3100
2889395.5300,713873.3600,0.8500
2889226.6700,713919.2600,0.8500
2888605.8800,714088.0400,0.0400
2888565.0600,714099.1400,0.0000
2888616.4500,714093.6200,0.3300
2889075.2900,713969.7500,1.0000
2889392.9800,713896.5800,0.8600
2889372.2400,713902.2200,0.7800
2889078.5700,713982.0600,1.0100
2889057.9900,713987.6600,1.0100
2888749.1300,714071.6500,1.0600
2888687.9500,714088.2700,1.2200
2888263.5500,714203.7800,-0.0200
2888586.2300,714124.1700,0.2500
2889001.2900,714011.9400,1.0000
2889953.8800,713754.6600,0.7700
2889180.1700,713976.1800,0.9900
2889137.8000,713987.7100,0.8200
2889013.4600,714021.4700,1.0600
2889644.6500,713873.4700,0.6700
2889327.3600,713959.4600,0.8900
2889180.9400,713999.1600,0.7900
2889117.5600,714016.3500,0.7400
2889013.9600,714044.4200,0.9500
2888993.3500,714050.0000,1.0500
2888786.5400,714106.0600,1.1300
2888198.7000,714265.5400,0.0100
2889338.3800,713967.6600,0.8700
2889911.4000,713812.8200,0.9400
2889878.0400,713833.9400,0.4700
2889729.4800,713874.2200,0.7300
2889687.0100,713885.7500,0.6500
2889389.9900,713966.3100,0.6500
2889347.8800,713977.7300,0.6900
2889117.9900,714040.0700,0.8700
2889096.9900,714045.7700,0.7800
2888663.7400,714163.2600,1.2200
2888655.7800,714175.2200,1.0200
2889644.4800,713908.3300,0.4400
2889963.5000,713822.1400,1.0600
2889409.4700,713984.1500,0.9000
2889177.8600,714046.9800,0.9600
2888120.0000,714334.0700,-0.2300
2888096.5000,714348.8900,0.1200
2888750.5800,714172.3700,0.2700
2888770.8400,714166.9200,-0.0300
2888792.2000,714161.0800,0.9700
2889191.2000,714053.4000,0.8500
2889233.1700,714042.0700,0.9400
2889508.1100,713967.8700,0.7400
2889614.6500,713939.1100,0.8100
2889827.6900,713881.6200,0.6000
2889891.5000,713864.3700,0.9800
2889347.0400,714023.7300,0.6900
2889221.0100,714057.9100,0.8800
2888826.4700,714164.9700,0.9100
2889328.7500,714038.4300,0.8900
2889880.8000,713889.5600,0.5300
2889944.8400,713872.2600,0.8400
2889941.3400,713884.4700,1.0500
2889834.6600,713913.4300,0.9200
2889792.1900,713924.9800,0.6500
2889770.8600,713930.7600,0.7600
2889706.8400,713948.1400,0.7400
2889558.0700,713988.5100,0.8600
2889410.2300,714028.6400,0.6800
2888847.3000,714181.4000,1.1700
2888785.4300,714198.2800,-0.0600
2888764.9400,714203.8700,-0.3100
2888178.0100,714363.2000,-0.4000
2888139.0900,714373.7400,-0.0800
2888137.3400,714381.2000,-0.0300
2888771.9300,714209.9700,-0.2300
2888792.8600,714204.2900,0.2300
2889274.8900,714074.2700,1.0000
2889507.6000,714011.5500,0.8900
2889805.3600,713931.3000,0.5800
2889996.9300,713879.6300,1.0300
2889832.6700,713934.7900,0.8800
2889726.4300,713963.6800,0.4200
2889556.7500,714009.7200,0.8700
2889366.4300,714061.4000,0.8200
2889345.2700,714067.1400,0.9200
2889303.3500,714078.5200,0.8900
2889261.4200,714089.9100,0.8500
2889219.8800,714101.1800,0.9900
2888783.9900,714219.6300,-0.0900
2888867.9500,714205.4100,1.6700
2889014.0400,714165.9900,1.0400
2889731.5100,713972.2100,0.6100
2889879.0700,713932.3300,0.7600
2889790.9600,713967.4200,0.8300
2889600.0900,714019.2000,0.7100
2888785.0500,714240.3500,-0.2600
2888797.6200,714246.9600,-0.1400
2888985.8800,714196.0100,0.7400
2889554.5300,714042.2700,0.8600
2889874.6900,713955.7100,0.9300
2889497.0300,714069.5700,0.8900
2889369.8500,714104.0700,0.7100
2889222.8100,714143.9400,0.7200
2889202.6400,714149.3900,0.9100
2888870.2800,714239.4500,1.7000
2888912.8100,714237.6000,1.4700
2888954.9300,714226.2300,1.3000
2889079.5300,714204.7600,0.9400
2888913.3100,714249.8500,1.3700
2888871.7900,714261.1400,1.1900
2888810.7500,714277.7800,0.2400
2888822.4200,714283.8600,0.2100
2888988.3900,714238.9600,0.8800
2889811.4400,714016.4700,0.6900
2889982.2000,713970.2800,0.9100
2889902.6200,714003.0100,0.8800
2889690.1100,714060.8000,0.6300
2889245.7000,714181.5900,1.0400
2889163.1700,714204.0200,1.0700
2889058.5400,714232.4700,1.0900
2888955.8300,714260.3800,1.2500
2888961.6400,714267.7700,1.2500
2889107.8800,714228.2600,0.8500
2889149.7000,714216.9500,0.7500
2889843.8200,714040.1100,0.5300
2889780.0300,714057.4400,0.8000
2889126.7400,714235.1700,1.0700
2889084.9200,714246.5500,1.0500
2889001.8400,714269.1500,1.2200
2888981.8200,714274.6000,1.1100
2888940.7500,714285.7700,1.1800
2888858.2400,714308.3200,-0.0900
2888837.3700,714313.9900,-0.0100
2888849.2000,714319.0200,0.0900
2888870.0900,714313.3700,0.1100
2888932.1900,714296.5000,1.2300
2888973.9100,714285.2100,1.2400
2889930.4400,714037.5900,0.8000
2889803.3000,714072.2400,0.5900
2889088.6100,714266.9000,1.0400
2888862.0400,714337.1000,0.0800
2888882.5200,714331.5300,0.2300
2889091.7200,714274.8100,0.9300
2889832.6100,714074.1400,0.7700
2889917.5800,714051.1200,0.8800
2889911.6100,714064.0900,0.9500
2889826.1100,714087.4300,0.7300
2889445.5100,714191.2400,0.8600
2889236.4900,714248.2500,1.0500
2889214.6900,714254.1900,1.0700
2889194.7200,714259.6500,0.9700
2889132.1400,714276.7200,1.0300
2889111.5300,714282.3400,0.9900
2889069.7100,714293.7500,1.0300
2888966.4100,714321.8900,1.5700
2888883.9100,714344.5200,-0.1100
2888880.8500,714355.0900,0.1800
2889026.5100,714315.4600,1.0700
2889659.0900,714143.6300,0.7500
2889661.6700,714154.6800,0.3200
2889619.1900,714166.2100,0.9100
2889491.8800,714200.8900,0.9100
2889471.1300,714206.5400,0.9900
2889116.0100,714303.3000,0.8800
2889052.9300,714320.4800,0.9600
2888991.4300,714337.2200,1.1100
2888970.3800,714342.9500,1.1800
2888950.1400,714348.4700,1.1800
2889165.7800,714300.3500,0.9000
2889208.4200,714288.7600,1.0400
2889504.3700,714208.3300,0.9200
2889632.1000,714173.6200,0.8800
2889865.0600,714110.3500,0.2900
2889887.2100,714104.3200,0.4300
2889751.5600,714152.9500,0.5800
2889582.0900,714199.1800,0.8300
2889497.5100,714222.2500,0.9400
2889454.6000,714233.9600,0.9400
2889245.7300,714290.9600,0.9900
2889203.9400,714302.3900,0.6800
2889183.3600,714307.9800,1.0400
2889141.7600,714319.3300,1.0700
2889100.3300,714330.6600,0.8300
2889058.9100,714341.9400,1.1500
2889037.8800,714347.6700,1.2100
2888996.6000,714358.9600,0.9700
2889180.4700,714318.7400,0.9100
2889987.8800,714110.4100,0.9500
2889520.9100,714238.0400,0.9400
2888999.3500,714380.6200,0.7200
2888897.2600,714408.5900,-0.1500
2888903.8700,714415.8800,0.1400
2889028.3200,714381.9500,1.2600
2889049.9800,714376.0500,1.2200
2889217.1500,714330.5900,0.9500
2889364.7100,714290.4400,0.9800
2889695.1800,714212.1000,0.6300
2889358.0700,714304.3800,0.9500
2889170.2300,714355.8000,1.1800
2889045.5400,714389.9400,1.2500
2889045.4100,714398.7400,1.2500
2889658.1500,714243.6300,0.7500
2889594.7500,714261.0100,0.7800
2889552.2700,714272.6700,0.6300
2889531.1300,714278.4400,0.8700
2889113.0500,714393.0500,1.0200
2889091.8400,714398.8400,1.4000
2888988.5700,714427.2900,-0.5200
2888967.9400,714432.9300,-0.2200
2889142.4500,714393.3900,1.2100
2889978.6400,714176.5800,0.8400
2889850.5700,714211.7800,0.7800
2889744.6100,714240.8900,0.8300
2889596.9700,714281.4500,0.7900
2889323.5000,714356.5800,1.0300
2889011.8800,714450.8000,-0.0200
2889812.0300,714232.1900,0.5600
2889939.5800,714197.3200,0.8400
2889917.6500,714214.7500,0.7600
2889832.7800,714238.0700,0.7700
2889726.7700,714267.2100,0.7400
2889662.9900,714284.7300,0.8200
2889305.0300,714383.0900,1.0500
2889221.9100,714405.9200,1.2800
2889138.9000,714428.7400,1.2300
2889076.6200,714445.8800,0.8900
2889056.1300,714451.6000,-0.2600
2889237.4500,714412.0400,1.0200
2889999.2800,714203.4200,0.8400
2889880.7900,714247.7100,0.7500
2889837.5300,714259.6000,0.7900
2889311.0900,714404.2500,1.0500
2889165.1200,714444.3600,1.1300
2889123.6800,714455.7400,1.1300
2889082.3600,714467.2000,-0.2400
2889061.5200,714472.9300,-0.2200
2889082.4600,714476.9800,-0.0100
2889165.4400,714454.1600,1.1000
2889861.8300,714274.8000,0.6800
2889820.0100,714286.3200,0.5700
2889777.7800,714297.9600,0.5000
2889692.4800,714321.4400,0.5500
2889356.4200,714413.9400,1.0400
2889335.4400,714419.7300,0.8800
2889314.8800,714425.3800,1.0300
2889293.3000,714431.3200,1.1400
2889251.7400,714442.7500,1.2200
2889148.7500,714471.1400,0.8900
2889749.8200,714315.8300,0.5400
2889927.5500,714278.3500,0.6500
2889737.3700,714330.8100,0.6500
2889715.6400,714336.8000,0.7200
2889651.8800,714354.3900,0.6000
2889296.2300,714452.4600,1.1000
2889275.4400,714458.2100,0.8700
2889192.4800,714481.1200,0.5800
2889153.7300,714500.9600,0.2900
2889174.5500,714495.2400,0.3400
2889279.4100,714466.4300,0.7500
2889658.9200,714362.2600,0.9000
2889827.0400,714327.4900,0.4800
2889805.5200,714333.4300,0.5900
2889721.2600,714356.6800,0.8100
2889341.8800,714461.4200,1.1500
2889279.5500,714478.6300,1.1900
2889175.9200,714507.3500,-0.1400
2889951.0400,714303.5200,0.8200
2889993.8900,714291.7800,0.4000
2889871.6900,714336.8300,0.7000
2889388.1300,714470.3800,1.1800
2889181.0500,714536.0200,0.3300
2889286.1800,714507.0700,1.2000
2889412.1100,714472.5100,0.8200
2889899.9200,714338.5200,0.8000
2889915.7400,714345.1300,0.7500
2889556.8100,714444.4600,0.7700
2889244.0600,714530.9900,1.0200
2889786.9900,714390.9700,0.8600
2889835.2900,714389.1500,0.6600
2889686.2200,714430.3400,0.8100
2889580.7500,714459.5000,0.7500
2889330.2500,714528.7200,1.0000
2889309.2700,714534.5000,1.3200
2889226.0200,714557.6100,-0.1200
2889233.2000,714566.2900,-0.0600
2889712.7500,714446.2400,0.7600
2889649.5700,714463.7200,0.7200
2889251.4900,714573.9000,0.1600
2889989.9000,714391.7200,0.5200
2889926.1900,714409.3700,0.6000
